 0.0505757170504646  0.0341478027062932 -0.0419696853919827 0.0740636893270824 1746098985.59743
0.000261193722348374   0.0295222692445552   0.0207497826479551 0.0360858155435897 1746098985.6144
-0.00551380155053229   0.0426433602997169   0.0685070933947794 0.0808831257469143 1746098985.6304
0.0075862598172914 0.0299487178953539 0.0479045288639658 0.0570028150819718 1746098985.65029
0.0113454742172494 0.0366608512960047 0.0866510817713448 0.0947689177689938 1746098985.67898
-0.039671248203919 0.0616879452404424 0.0115499113801586 0.0742469593649079 1746098985.69723
 -0.029344100353301   0.182250759717743 -0.0705590256186332 0.197623358284111 1746098985.71438
-0.0902185140654493   0.134586274788274 -0.0278677606998565 0.164406379827508 1746098985.73041
-0.0384269833143859  0.0586336566031843  -0.054872088987475 0.0890251924072821 1746098985.74856
-0.0304935630848848 -0.0746674946287634 -0.0491157720756382 0.0944322572553166 1746098985.77873
-0.0180669625584415 -0.0209424016423798 -0.0451104226008611 0.0529145495101977 1746098985.79875
0.0190060103526369   0.16064611331423 -0.012047273757838 0.16221448442568 1746098985.81459
 0.0321358944914721   0.205967066643583 -0.0308077358955676 0.210723194849404 1746098985.83043
-0.00567053118811474    0.150071019263144   -0.106942181785643 0.184364031176658 1746098985.8481
-0.0551831257705757  0.0247191935445321 -0.0702752318289107 0.0927082742149284 1746098985.87824
 -0.0677140782458669 -0.00415874563393933  -0.0100204094187929 0.0685776943535975 1746098985.89841
-0.0366842524247288 -0.0187747027586319 -0.0106934151669609 0.0425743228668313 1746098985.91411
 -0.055675237647603  0.0505807699083911 -0.0152216795777929 0.0767453314593902 1746098985.93011
 -0.112353444189745  0.0380320957082413 -0.0602675476198237 0.133048540094834 1746098985.94717
-0.0794803548472539  0.0342483489382027 -0.0462044103684668 0.0981066957405862 1746098985.97315
    0.013396337144341    0.0557261965292049 -0.000311176265673739 0.0573146373901531 1746098985.99653
  0.214518040523493  0.0166875275056436 -0.0243080696639799 0.21653485986113 1746098986.01292
 0.194665083290542 0.0440886689172554  0.031550320638188 0.202073571037336 1746098986.02921
 0.116259960074911 0.0780572091166821 0.0516200646807842 0.149244555308908 1746098986.04649
  0.13280080224233 -0.048857813538074 0.0606299544501525 0.153945218816809 1746098986.07141
 0.0621036157783758 -0.0476356426473573  0.0758239469137977 0.108973778812893 1746098986.098
   0.127167269188575 -0.00525219230983552  0.00824236185359468 0.127542292616467 1746098986.11444
  0.157910553282749  0.0593263240090129 -0.0307347130064478 0.171464218255807 1746098986.12925
 0.0870347810960614  0.0737017152775517 -0.0724136114276565 0.135095251860634 1746098986.14644
0.0778704669042701 0.0383092452044261 -0.033828900316732 0.0931439873564647 1746098986.17031
  0.121041551398678  0.0539141418856958 -0.0204158439259378 0.134069379589368 1746098986.19496
  0.153315495571809  0.0891049759599629 -0.0636526524438696 0.188406470394185 1746098986.21444
   0.201168378844614    0.181269245443546 -0.00100819481634803 0.270791935713437 1746098986.2305
  0.169013356416629   0.145936724994016 -0.0152902864414453 0.223823223121854 1746098986.24746
  0.169966326927415 -0.0231294835019718 -0.0139418636955639 0.172098520794255 1746098986.2669
  0.140640234233114 -0.0676322881750087  0.0304095218185812 0.158992266812469 1746098986.29702
  0.0906131421242351 -0.00584552054928612  -0.0555447536611358 0.106443089467542 1746098986.31445
-0.0637777162955179  0.0635709244285883  0.0305534123421089 0.0950913799159723 1746098986.3307
-0.194793234775967 0.0625433300707989  0.045523943321566 0.209591273354535 1746098986.3471
-0.232019242613623 0.0154730694408507  0.012882344192293 0.23289117547217 1746098986.36681
 -0.193484383872077 -0.0457525650743612  0.0218354833250478 0.200015730244597 1746098986.3965
  -0.07207637873732 -0.0482581140185652 -0.0616987581503706 0.106445228628682 1746098986.4144
0.00192300358211359  0.0282932522685076 -0.0918781566125198 0.0961550920608001 1746098986.43057
-0.0346834872195699  0.0340917179109947 -0.0630267653196683 0.0796088102064931 1746098986.44694
-0.0808474567048837 -0.0168575898349988 -0.0393034132806512 0.0914617290794503 1746098986.46508
  -0.13975240017044 -0.0631581375018755  0.0718909413273169 0.169375296696514 1746098986.49629
-0.0554030112515539 -0.0447836501907262 -0.0109941908479586 0.0720828773880904 1746098986.51437
 0.0144130319419985  0.0621960511560243 -0.0193019254048775 0.0666981903315174 1746098986.53045
-0.0264000357550855   0.127554175517049 -0.0215971853665967 0.132035858748535 1746098986.54703
-0.0445396056408559  0.0853547765598542 -0.0310443322188525 0.101158118384735 1746098986.56471
 -0.0603277333543815 -0.00295985425655216   0.0384409019864078 0.0715953845888546 1746098986.59497
-0.0236113874440663  0.0300012067170787  0.0120223691811985 0.0400263336098091 1746098986.61424
 0.0461472937659433  0.0877274817079108 -0.0329315123335773 0.104451750934624 1746098986.63043
  0.0603890784607989    0.176875472069359 -0.00519405824451975 0.186972596008481 1746098986.64691
 0.0229029609897574   0.124460717239043 -0.0498196478697618 0.136003724477025 1746098986.6647
0.0112499948975348 0.0392041998066754 -0.023060855572166 0.0468543992320528 1746098986.69475
 0.0227365199806677  0.0516329847620501 -0.0213632488874472 0.0603266347420144 1746098986.71424
 0.0925110777168564  0.0302231829935863 -0.0650591062314848 0.117065911324508 1746098986.73054
  0.131315758771856  0.0579674335196644 -0.0266453552414995 0.145993242332071 1746098986.74705
  0.152801661153757  0.0477169356187366 -0.0693766755856309 0.17446597579902 1746098986.76445
  0.258165269955082   0.051721674906869 -0.0368052246541156 0.265855341921114 1746098986.7943
  0.302117405909238 0.00791554109376248 -0.0176142438353287 0.302733949748 1746098986.81414
  0.388733700704797  0.0184040377712089 -0.0798488779116237 0.397276279147996 1746098986.8307
  0.411650573562164  0.0796176932098346 -0.0345682984652061 0.420701959877647 1746098986.84681
 0.407049079054029  0.083867879639541 -0.029391201886253 0.416637272387246 1746098986.86402
  0.529596266330108  0.0532830947506318 -0.0096593716992693 0.532357583733547 1746098986.89044
   0.452411170681156    0.064439723329724 -0.00344703675649124 0.456990401827331 1746098986.91396
  0.391860343074954  0.0801698556204669 -0.0991241500080905 0.412076851254537 1746098986.93198
  0.294282507059161   0.148273114244518 -0.0549922676744029 0.334082714118474 1746098986.94663
  0.254317651373477   0.128432531787852 -0.0655344966470903 0.292347658229627 1746098986.96291
  0.417869201684949  0.0330661732684645 -0.0515447624421689 0.42233269358014 1746098986.9882
  0.421885247086733  0.0364559944505078 -0.0576063760379776 0.427357807698699 1746098987.01406
  0.423796316893723 0.00332254154458312 -0.0518483423744694 0.426969095019746 1746098987.03111
  0.317696750089759 -0.0309148842334014  0.0208761995592338 0.319879306602969 1746098987.0466
  0.234932756404444  0.0500317998240228 0.00519610235169587 0.240257321439056 1746098987.0626
 0.335845730096662 0.0572750156000784 0.0475167845621557 0.343992189811448 1746098987.08429
 0.414164293370166  0.135694667164082 0.0876165645915859 0.444546698323597 1746098987.11303
  0.448932114224477  0.0965074203273978 -0.0136274718845488 0.459390284344665 1746098987.1311
  0.454519146488504  0.0787395271484193 0.00627361552582236 0.46133168752207 1746098987.1486
  0.386176528645355  0.0972519775018084 -0.0503407510761692 0.401403101163284 1746098987.16427
    0.443644623293187 -3.39621929182875e-07   -0.0695391057343769 0.449061509153709 1746098987.18315
  0.636361066921514  0.0266034506557275 0.00212578274457113 0.636920458167703 1746098987.21437
 0.603666994912242 0.0201474350790658 -0.022628371832103 0.604426838499428 1746098987.23214
  0.524747850657865  0.0758328584722654 0.00578527743511892 0.530230514615224 1746098987.24845
  0.462740164440908  0.0915225623901016 -0.0450347256060038 0.473849095940529 1746098987.26485
  0.567926770933298  0.0532327204981263 -0.0106125957524436 0.570514826155254 1746098987.28636
0.686689718251247 0.087294199575568  0.10426051075345 0.700023785691663 1746098987.31436
 0.602941366227898  0.047354261313776 0.0459393460054584 0.606540304254175 1746098987.33219
  0.519577217871888 0.00115119232241642  0.0329908216190293 0.520624821619516 1746098987.34832
   0.433900734048899   0.0615796306304492 -0.00478199231744066 0.438274760130309 1746098987.36437
   0.44100582331339 -0.0264480580918999 -0.0136287408362041 0.442008346697134 1746098987.38271
 0.595988657242284 0.0691714425617298 0.0786849200384706 0.605126833539045 1746098987.41428
 0.480652666503075 0.0550651564262749 0.0623839548532967 0.487802126985834 1746098987.43226
 0.440609430063885 0.0310422164031284 0.0976042915844638 0.452357034648678 1746098987.44858
 0.350680950360702 0.0698908794813298  0.088545257432919 0.368377695571299 1746098987.465
 0.315774612050705 0.0429017066546191 0.0899400199419959 0.331124401451809 1746098987.485
 0.393997864223374 0.0171767906474956  0.113919620680684 0.410496089050261 1746098987.51435
   0.446073988670264 0.000732054810748481 -0.00709219075766556 0.446130965571981 1746098987.53448
  0.500928882126167  -0.022582218219686 -0.0610439433520148 0.505139648560532 1746098987.55073
  0.459568158551974 -0.0110727620974038   -0.06390610660196 0.464122277935825 1746098987.56622
 0.481958213789104 0.0281435869220529 -0.017879624881984 0.483110196859416 1746098987.5851
 0.564257824058176 0.0307584553479039 0.0606587849000767 0.568341853792073 1746098987.61428
 0.473690516752609 0.0626377076232573  0.122631158360099 0.493299694991179 1746098987.63487
 0.408816966678569 0.0630300837074759  0.150975403266431 0.440338138352675 1746098987.6509
 0.370970275048011 0.0859650085901398  0.119337212805588 0.399061772199877 1746098987.66714
 0.302113211409981 0.0590854783277109  0.120237743223884 0.330485402330025 1746098987.68475
  0.398191124798523 -0.0469508880912227   0.180505973441996 0.439707816861504 1746098987.71393
  0.376556570805533 -0.0677136539975247   0.120654968271185 0.401170302144911 1746098987.73477
 0.415768512703054 -0.101139299751793 0.0792186076936791 0.435164568771997 1746098987.75116
  0.398043277193469 -0.0381615280421656  0.0293457662038861 0.400943794983191 1746098987.7675
 0.276016151086448 0.0477834269637259 0.0300544909992931 0.281729380757849 1746098987.78467
  0.380996353633441 -0.0542123404620213  0.0644242823640843 0.390189297006562 1746098987.81275
  0.335096282639744 -0.0179370772125069   0.112279910742258 0.353861605340552 1746098987.83624
  0.332029131111949 -0.0453478128343736  0.0731820402681608 0.343009298785948 1746098987.85143
 0.316638626345895 0.0544035975631127 0.0551404320418148 0.325975824821078 1746098987.86748
  0.25464085615751 0.0674505708152279 0.0162806820001607 0.263925379102352 1746098987.8844
 0.325077749966778 0.0336813836841625 0.0493828522057142 0.330527828211656 1746098987.91224
 0.275162671340501 0.0580373006183734 0.0696634900428641 0.289716802769982 1746098987.93788
 0.240107755201886 0.0314988074056186 0.0559295361714537 0.248539779497003 1746098987.95418
 0.177663712369907  0.087503298450336 0.0390199644952507 0.201850884471573 1746098987.96824
0.0312784968309883 0.0787909537883088 0.0228305487077594 0.0877928967352993 1746098987.98464
-0.00697417395484602   0.0303275457027216   0.0520059863721774 0.060605459731333 1746098988.01206
-0.111482961536325 0.0371829379159108 0.0195612083660511 0.119137158173713 1746098988.03817
 -0.162039892367217 -0.0410729103487466 -0.0136521066869019 0.167720871390194 1746098988.05423
 -0.251815835103559 -0.0227126393392289 -0.0416634051554011 0.2562477670611 1746098988.07034
  -0.489412503753499 -0.00289592936894762   -0.104823208200284 0.500520619170258 1746098988.08709
  -0.73430656573724 -0.0138627152709036 -0.0878445958677841 0.739672211444148 1746098988.11385
-0.913288526821439 0.0748158915576498 -0.103851121070356 0.922213861423049 1746098988.13937
-0.771144355160694 -0.012246032105614 -0.185521681339769 0.793241373130316 1746098988.15513
 -0.781731872271891 0.00615052525256832  -0.191722395265893 0.804922372613093 1746098988.1712
  -0.987502192917385 -0.00122645555097766   -0.249300715703659 1.01848560719345 1746098988.18812
  -1.25662653196977 -0.0574135868602043  -0.243119439334761 1.28121568152633 1746098988.21428
 -1.32413859275778 0.0490428779787671 -0.206644859090126 1.3410631284542 1746098988.23856
 -1.05891524513733 0.0285742902907553 -0.256515386632721 1.08991657021499 1746098988.257
 -0.898907494985234 0.00943491321544913  -0.230901432266661 0.92813747556642 1746098988.27224
-0.945664704564802 0.0809674718574332 -0.243880375032178 0.979956683881719 1746098988.28872
 -1.20305991331153 0.0502372882916463  -0.28006482941761 1.23624967091149 1746098988.31421
  -1.2610708326695     0.033349635381 -0.300537016065987 1.2968170037502 1746098988.34066
 -0.894697439487408 -0.0519815133005873  -0.252760397682803 0.931167763932532 1746098988.35817
-0.726780663469888 0.0127173171726311  -0.21942305131266 0.759288047052736 1746098988.37455
-0.830496077029918 0.0308273547237225 -0.221536750489044 0.860088711458644 1746098988.39205
  -1.03946456818784 -0.0579461656392458  -0.186676864179786 1.05768265479312 1746098988.41441
  -1.29733218777489 -0.0491827732093369  -0.145919201573149 1.30643873335303 1746098988.44179
  -1.06034800067359 -0.0597822426495512  -0.231481487147921 1.08696618068866 1746098988.4587
-0.923782554719626  0.105814604188368 -0.178818420315723 0.946861640530479 1746098988.47531
 -1.01655791294632  0.111606039148859 -0.241930453458146 1.05089306908873 1746098988.49234
  -1.22687456814455 0.00248292076888861  -0.295347375719859 1.26192608468167 1746098988.51428
  -1.39530091812323 -0.0709730550949361  -0.389639564441276 1.45042091023365 1746098988.54199
  -1.05903899319521 -0.0930538741568243  -0.343704190472988 1.11729816215378 1746098988.55886
-0.980999431268636 0.0131600426441757 -0.246864528739776 1.01166949465806 1746098988.57625
 -1.10644696190501 0.0759639129988299  -0.18392392503562 1.12419900630957 1746098988.59263
  -1.33699394408367 -0.0930577278813171  -0.217047695630955 1.35769004173028 1746098988.61435
 -1.46749008141559 -0.134871527813859 -0.188905071401753 1.48573301574316 1746098988.64211
  -1.05404628969521 -0.0948195882786828  -0.233461046660206 1.08374738544057 1746098988.66099
-0.740357067482221 0.0504812113334819 -0.148996191168065 0.756886256349764 1746098988.67797
-0.718001859992145 0.0786387687273932 -0.165343522107078 0.740978547059167 1746098988.69448
 -0.858379847508707 -0.0141724221099374  -0.135599570642163 0.869139841289002 1746098988.71425
  -1.07825260590457 -0.0706551850751623  -0.163747775874667 1.09290172084314 1746098988.74298
-0.896974461863663 -0.016655981317316 -0.177512136308569 0.914522370139781 1746098988.7621
-0.630333094461999  0.132003455947267 -0.202248057088576 0.67501777676752 1746098988.77844
-0.644762029543757  0.134554106399695 -0.097224933441669 0.665789433659879 1746098988.79473
 -0.764083839760689 -0.0222605259941174  -0.151411421571708 0.779259304585668 1746098988.81422
-0.947720208875356 -0.223961928022654 -0.166033538877469 0.987876346283556 1746098988.84423
-0.678508993857232 -0.214159910259909 -0.132240125467787 0.723689417285773 1746098988.86226
 -0.509993317718226  -0.147786968959087 -0.0682371847953058 0.535341466449355 1746098988.87859
 -0.519301897489924  -0.140079100624319 -0.0920256335750619 0.54567878133866 1746098988.89484
-0.650371353557671 -0.254529431518317 -0.165887455060406 0.717834783765661 1746098988.91443
-0.850874377850583 -0.454235872206665 -0.209992685666012 0.98712428929451 1746098988.94436
-0.706155840806115 -0.300289300266832 -0.120443503912324 0.776747303177818 1746098988.9628
 -0.617039836932721 -0.0926003133034734 -0.0124405058869452 0.624073508949534 1746098988.97889
 -0.626296448323986 -0.0213715125099395 -0.0830328629461661 0.632137990520454 1746098988.99595
 -0.602864480699255 0.00201400822656502 -0.0508683888506842 0.605010108429755 1746098989.01397
 -0.688692965894954 -0.0268294807366244  -0.151957268500731 0.705768257829713 1746098989.04432
-0.627293302225643 0.0301825633557302 -0.110327017906898 0.637636201158705 1746098989.06437
 -0.587806062057841  0.0353143025175579 -0.0351169417091359 0.589912083406715 1746098989.08093
-0.649010666650844 0.0459433619425539 0.0212393695103952 0.65098137358173 1746098989.09612
 -0.68077884214441  0.038169365834941 0.0185224761309403 0.682099563496229 1746098989.11296
 -0.804091741573245 -0.0168210375424544 -0.0594733330915845 0.806463609544362 1746098989.14305
-0.706519262062761 0.0354202087674781 0.0308636901107826 0.708079533825188 1746098989.16425
-0.482844927464345  0.158168024169703 0.0626547486081743 0.51193941572314 1746098989.18039
-0.438581081678651  0.182743042192969 0.0102609159066973 0.475240645433028 1746098989.19617
-0.473954729734336  0.202313194201514  0.047946265488708 0.517554401739451 1746098989.21266
 -0.612060002214289  0.0858970700471646 -0.0529875460583058 0.620325263866082 1746098989.24245
  -0.61397648413298  0.0139997394544927 -0.0105099502009792 0.614225996540619 1746098989.26435
-0.474172977211723 0.0115513755008436 0.0435134081623323 0.476305430667857 1746098989.28027
 -0.358302017189342 -0.0127679750403404 0.00968580440110556 0.358660245239807 1746098989.29673
-0.305776997750485 0.0310615108750208 0.0521755762206264 0.311747783576874 1746098989.31212
 -0.326667832547082 -0.0752170838530827 -0.0179027072631014 0.335693296703581 1746098989.33812
  -0.18462296582009  -0.081019968880371 -0.0470389908526501 0.207032706416204 1746098989.36417
 0.0394284341715884 -0.0133432118955921  0.0265470932115809 0.0493699390611161 1746098989.38047
  0.214370346402666  0.0357846252303472 -0.0492459441985754 0.222846018227126 1746098989.39789
   0.327971407563852    0.118314498323537 -0.00992341617561559 0.348800858487417 1746098989.41437
  0.515921870248539  0.0396697013709208 0.00521792984968531 0.517471050590779 1746098989.43847
 0.755512932319863 0.0447886389120574 0.0670683707453589 0.759805224667868 1746098989.46434
0.763545211480645 0.102503266734144 0.121479542931586 0.779913770244545 1746098989.48075
  0.861360730697442 0.00367945408302204   0.123436160318255 0.87016799093284 1746098989.49795
    0.877434867070982 -0.000449389845879529     0.221201700304932 0.904888026288833 1746098989.5143
    1.08299261729388 -0.00531391592259998     0.25515349532785 1.11265652965931 1746098989.53696
  1.27621162000807 0.0540095610805948  0.295753630254657 1.31114581246349 1746098989.56433
  1.10725675839164 0.0762106168241389  0.269624866428751 1.14215723773805 1746098989.5812
 1.15356041073446 0.194209049965569 0.184783802546032 1.1842988769672 1746098989.59819
  1.2139929509901 0.288877711873109 0.216069900101401 1.26645782369589 1746098989.6143
 1.63557755756989 0.265473083827457 0.309809967559511 1.68569633121223 1746098989.6364
 1.79584472550248  0.29878802160626 0.427570708377696 1.87006664871418 1746098989.66425
  1.3833570317132 0.209433976408412 0.393218318130166 1.45332718731114 1746098989.68283
  1.07858463137185 0.0827408570694786  0.359185368951244 1.13982673495966 1746098989.69829
    1.07777204237712 0.000867378661013552    0.400436080224259 1.14975753183916 1746098989.71441
   1.45519432064795 -0.0797072954409706   0.521963037162591 1.54802751136941 1746098989.7362
  1.89423384525881 -0.144585932632571  0.627334095515904 2.00064365138721 1746098989.76402
   1.63609922188924 -0.0611103475424254   0.461893564417614 1.70114690820451 1746098989.7836
 1.36944971884187 0.106126859466885 0.334593196418106 1.41372134801228 1746098989.79968
  1.2508897836816 0.176071006152598  0.26095350996773 1.28989262517896 1746098989.81435
 1.50419568406428 0.199222594927741 0.308330422897016 1.54834167675329 1746098989.83445
 1.89084278448497 0.196486622806295 0.425403938171676 1.94804053838535 1746098989.86272
 1.63937856431602 0.136851879031922 0.382855349019863 1.68904373306512 1746098989.88259
   1.33522642798405 -0.0301065922586773   0.260988894146065 1.36082740410092 1746098989.89887
  1.24235119231398 0.0400019903880863  0.269158804316512 1.27180309255013 1746098989.91401
   1.40405793588259 0.00933211640599588   0.271560184736479 1.43010863560976 1746098989.93402
    1.77726200864606 -0.00192283480523277    0.331889075159044 1.80798625627527 1746098989.96122
  1.58871754758165 0.0164640118097825  0.273398231393498 1.61215418078043 1746098989.98203
  1.34569021999561 0.0313004162688691  0.268702881273251 1.37261178876439 1746098989.99835
  1.12701928226686 0.0123072239777922   0.28562368022034 1.16271441767356 1746098990.01288
   1.12585381690568 -0.0636673458785953   0.263626776337627 1.15805847226057 1746098990.0327
  1.34986698091606 -0.138697738620052  0.317307059775947 1.39357873801569 1746098990.06035
  1.16648210224237 -0.132850202844924  0.214277067822234 1.1934170826003 1746098990.08212
  0.954264883392238 -0.0656302886217245   0.117044261806597 0.963653548575432 1746098990.09824
  0.845577511181612 -0.0507613874237202   0.111038530041183 0.854346300409253 1746098990.11432
   0.73130261011509 -0.0882276398488965  0.0774940018210261 0.740670604461043 1746098990.13208
 0.964919539514976 -0.140921229731014  0.146511617021418 0.986100484052678 1746098990.15874
  1.0397504237918 -0.11527124197769 0.239820265829962 1.07325773368053 1746098990.18196
   1.00185046120446 -0.0575952562353612   0.183470236869016 1.02013866115013 1746098990.1981
   1.03010561282695 -0.0388876426089177   0.121938620327286 1.03802642040199 1746098990.21424
  0.983925479462197 -0.0635933297647874  0.0638736587891026 0.988045193810786 1746098990.2308
  1.25194167343681 -0.154281743259759  0.113559985390408 1.26651359261277 1746098990.25811
   1.1508672938216 -0.128231614888679  0.116316696063606 1.16381632950753 1746098990.28226
  0.889372769183107 -0.0809239374185035  0.0464665160476275 0.894254853677265 1746098990.29847
  0.833409434173689 -0.0087751961953484  0.0657346488639392 0.836043858358663 1746098990.31426
  0.657421281304956 -0.0346237280849063  0.0381826600401946 0.659438745591198 1746098990.33058
 0.694851655346478 -0.154698194360993 0.0988422837926842 0.718693363919304 1746098990.35362
0.73583114579478 -0.1134672747858 0.11007707390629 0.752621591351687 1746098990.38184
  0.632925987737071 -0.0363200881003057 -0.0214465225638575 0.634329889003067 1746098990.39832
  0.628846915810635  0.0949906727473966 -0.0650052154646433 0.639294415329241 1746098990.41424
  0.546592634799633   0.153982207081084 -0.0940192656186002 0.575598515305788 1746098990.42999
  0.619483878219351   0.155916385950779 -0.0719698530330028 0.642845124837415 1746098990.45214
  0.708018926424917   0.152048409942715 -0.0349486072535473 0.725004085706393 1746098990.48266
  0.598223214352328   0.110777575207075 -0.0138258460861799 0.608550605437863 1746098990.50024
 0.499811378457686 0.0514971570222487 0.0685635305081235 0.507113723865648 1746098990.51445
   0.409491670844985 -0.00165353671645532   0.0162194818327044 0.409816098105006 1746098990.52994
 0.434975814570562 -0.105967942173523 0.0518832572126535 0.450693949824945 1746098990.5521
 0.494608082714915 -0.151244804068882  0.107376396039543 0.528244107086108 1746098990.58244
   0.40499002419339  -0.126045709398823 -0.0206168363931498 0.424652204158741 1746098990.6003
    0.3202791739194 0.00543846928684846 -0.0686672919407369 0.327602691040766 1746098990.61426
 0.240691979544053 0.0931050868617982 -0.105004721457253 0.278616542482124 1746098990.62974
  0.248708637201057   0.148419572258076 -0.0798842194493169 0.300442746899811 1746098990.65084
  0.258830743648295    0.17521449523285 -0.0371131472306465 0.314755236484789 1746098990.67994
 0.201874681318976  0.158198153091102 -0.120504564115675 0.283375003434994 1746098990.70026
 0.117325713105091   0.09134448824664 -0.118638085131504 0.190221275708919 1746098990.71426
-0.0564201913818761   0.126006846046892  -0.160637602614369 0.211814547706111 1746098990.72983
-0.293672100467441  0.146876978256726 -0.193372735048835 0.381063202100455 1746098990.75023
-0.568434102754525  0.169994315074845 -0.161384517491891 0.614866130810762 1746098990.77832
-0.681053418336493  0.157214604841979 -0.189126857054274 0.724098859730264 1746098990.79987
 -0.64383653205618 0.0444428154777314 -0.127955727722866 0.657931084624222 1746098990.81399
-0.696250056718073 0.0401143216663707 -0.127747712310906 0.709008306216043 1746098990.82873
 -0.93605584112515 0.0331724560526228 -0.173434452939337 0.952565199349337 1746098990.84647
  -1.38497598633566 -0.0143606029158452  -0.161904482132035 1.39448118344314 1746098990.87783
 -1.25472892227194 0.0167545759113315  -0.22173666678311 1.27428118309726 1746098990.89868
 -0.986357370181968 -0.0805842753108231  -0.159803977873484 1.00246296614082 1746098990.91276
 -0.939929678626589 -0.0348038804506666  -0.168180462471778 0.955491380816556 1746098990.92878
 -1.12929467514165 0.0326826817235481 -0.284726180238808 1.16509382399072 1746098990.94648
 -1.61552640997025  0.136059813060097 -0.361370720372873 1.66103180330303 1746098990.97704
 -1.49890267951285  0.391664919119671 -0.391877484296707 1.59802334595542 1746098990.99831
 -1.19935085718703   0.35068191198364 -0.441541149970433 1.32528444839022 1746098991.01446
 -1.11035237646046  0.317430338910986 -0.412599758040968 1.22632906689354 1746098991.03073
 -1.29515749865352  0.220449942906862 -0.500243878620094 1.40580050567033 1746098991.04841
   -1.66518303966327 0.000380817871720488   -0.506130137769933 1.74040294672339 1746098991.07179
 -1.84716861796943 -0.058418480581545 -0.449775450552489 1.90203642920009 1746098991.0981
 -1.41208505430017 -0.194727187019395 -0.313073351476143 1.45942379086642 1746098991.11438
 -1.22998283041556 -0.129108281880725 -0.233032479957242 1.25850341607891 1746098991.13058
  -1.27509933952341 -0.0957694531205788  -0.210781958286184 1.29594720098583 1746098991.14794
 -1.48413819179455 -0.254521853348897 -0.185413362429342 1.51717687206954 1746098991.17018
 -1.86243242861011 -0.331578579486424 -0.111821613600368 1.89502057476456 1746098991.19766
 -1.58259821744828 -0.335957630104828 -0.139880312707608 1.62389998121168 1746098991.2143
 -1.72396494096294  -0.23851704031077 -0.056778211003667 1.74131251113428 1746098991.23334
 -1.88979470486464 -0.179211276386282 0.0152110177672073 1.89833402834695 1746098991.24774
 -2.57615609280448 -0.425468793083776 0.0164916166038058 2.61110625632126 1746098991.26983
 -3.03149305835805 -0.502209876446531  0.208516648502153 3.07987728904514 1746098991.29752
 -2.05817145864575 -0.341134281666961 0.0688716479484151 2.08738727964016 1746098991.31441
  -1.30325178218117   0.207601453641121 -0.0198986355753528 1.31983314362463 1746098991.33151
  -1.05274167028235   0.412015996012024 -0.0351066887208875 1.13104141609032 1746098991.3478
  -1.33072670084494   0.342332622022368 -0.0766891694250148 1.37619272093318 1746098991.36959
 -1.76628507777721  0.100328930042401 -0.151113433574975 1.77557431271933 1746098991.39693
 -1.59079715627125  0.053908074124708 -0.120572796294536 1.59627048837684 1746098991.41441
  -1.41842467924912 -0.0503996202936515  -0.126572393666029 1.42495237228023 1746098991.43081
  -1.38798602853488 -0.0741019387303414 -0.0986770112465665 1.39346096654344 1746098991.44759
 -1.38380000061999  -0.14064474873455 -0.135054009089851 1.39747020448871 1746098991.46612
 -1.52660171000144   -0.1364624780251 -0.281622424377818 1.55834719456241 1746098991.49614
  -1.0781084302173 0.0113228558697328 -0.239825491599116 1.10451901784959 1746098991.51428
-0.802962544548337  0.211957803585669 -0.182757396569932 0.850338300001488 1746098991.53061
-0.858648903315841  0.254735988523493 -0.172548686621019 0.912108223989444 1746098991.54756
 -1.00660675379519  0.203540298570784 -0.232534369607397 1.05297580360476 1746098991.56632
 -1.31244108934532  0.229672324445079 -0.424690020672826 1.39843219473702 1746098991.59613
 -1.18311177532137   0.29158168741457 -0.316148199635612 1.25885783052434 1746098991.61447
-1.07394558932227 0.248785661415963 -0.22393470422575 1.1249000781881 1746098991.63065
 -1.17442985062673  0.197817391067879 -0.196496711769036 1.20707421146674 1746098991.64776
-1.28801627587981 0.105640666637941 -0.14553000710745 1.30050946184474 1746098991.66463
  -1.64668938320794 -0.0822231949969663  -0.346260024680777 1.68470845645684 1746098991.69565
   -1.3587282874745 0.00160482921977849  -0.264781482484145 1.3842883977433 1746098991.71431
 -1.01347125847246  0.051213805933484 -0.194734200593795 1.03328033686355 1746098991.73031
-0.891222993381116 0.0229480040027353 -0.165872903973131 0.906817983440661 1746098991.74676
 -0.946808347511299 -0.0654879296815694  -0.145073492336552 0.96009428392725 1746098991.76444
 -1.13526198905896 -0.273230162868979 -0.315055598369505 1.20943562696304 1746098991.79088
 -1.15473045878862 -0.186622532821453 -0.286452777968429 1.20427803941478 1746098991.81404
-0.918466719927737 0.0251828163833382 -0.171435613139532 0.934668636099629 1746098991.83055
-0.821875127755834  0.196290051482985  -0.16774037765118 0.861478580249922 1746098991.84647
 -0.83177058312903  0.190122155282536 -0.186167766039287 0.873296727349955 1746098991.86375
-0.939498123855094 0.0749548556457348  -0.28524344107093 0.984702379293409 1746098991.89001
-0.878681559517856 0.0852507696297008 -0.183046574465311 0.90158472989657 1746098991.91373
  -0.592167140281045    0.213124986538539 -0.00617696129932084 0.629382504337844 1746098991.93192
-0.416613623773341  0.258031094254221 0.0734760437575426 0.49552566646123 1746098991.94651
-0.40676623368927 0.226971528178906  0.16140167474806 0.492976007616091 1746098991.96383
-0.431374234932443 0.0458946613834936  0.125917858622868 0.451713800572026 1746098991.98975
 -0.360744152094274 -0.0783552313362435   0.275494024785157 0.460622234852267 1746098992.01255
-0.0901598006669937 -0.0799016991984313   0.324989785298565 0.346599814973286 1746098992.0321
 0.279985303177412 -0.110520875805132  0.234598933407841 0.381632406302422 1746098992.04777
 0.592454234777987 -0.051900741772245  0.306367908139785 0.668997012280942 1746098992.06361
  1.07486173499356 -0.117896752661981  0.262701110889922 1.11276199939808 1746098992.08851
  1.35066437620357 -0.137931847472979  0.257157459728581 1.38182828556473 1746098992.11222
   1.49224379654134 -0.0792571621023788   0.154095523928436 1.50227117277654 1746098992.13222
  1.47054490050856 0.0273757009563365  0.119993412379704 1.47568633267002 1746098992.14821
 1.54318589313675 0.191144216801965  0.18420577575354 1.56585139148454 1746098992.16429
 1.72373347399937 0.166044933727655 0.234883260203122 1.74756921331495 1746098992.18449
 1.92102499457111 0.104044263092846 0.397781204935536 1.96453356434789 1746098992.21441
    1.4022647557758 -0.0698089999827684    0.33872752324225 1.44428393218626 1746098992.23194
   1.13196351344143 -0.0204557202883926   0.263969443421237 1.16251438671326 1746098992.24843
   1.04293005085096 0.00464144863885231   0.254624659331287 1.07357270417658 1746098992.26453
   1.17623598890389 -0.0673915110655767    0.33034136581604 1.22360048027353 1746098992.28415
  1.51138089635596 -0.107203153274625   0.56267266452665 1.61628130514069 1746098992.31432
  1.38760940755695 -0.102949199446034  0.534859139763005 1.49068195970675 1746098992.33227
   1.39018362397534 0.00294759588530399   0.393858279252785 1.44490260600037 1746098992.34943
  1.47250689366049 0.0898752705024048  0.306304741533288 1.50671055973313 1746098992.36602
  1.70924328738549 0.0786912150480927  0.324934383645094 1.74163350808169 1746098992.38643
    2.034128131134 0.0123084970436976   0.40277392985429 2.07365753960013 1746098992.41445
    1.8273707813549 -0.0206717673762346   0.387371467567683 1.86809206100814 1746098992.43429
   1.64682059483993 -0.0278561377197631   0.314872285824157 1.6768835953571 1746098992.45069
  1.62888867936801 0.0505833901540833  0.226856985896236 1.64538782698264 1746098992.4661
  1.95614199629669 0.0520411832285912  0.265313754562255 1.9747382567792 1746098992.4865
  2.51401076802232 0.0231078659159173  0.325690766265851 2.53512496544652 1746098992.51439
  2.17468042849904 0.0787878194878934  0.255137070263148 2.19101287335764 1746098992.53469
 1.79690024708961 0.131748319854128 0.173984017449928 1.81010457048843 1746098992.55178
 1.66949268028396 0.140043866625365 0.136931527740048 1.68094269307145 1746098992.56774
 1.82113341600268 0.117528976943067 0.155803475069498 1.83156072848994 1746098992.5864
  2.4471374938109 0.109147446647475 0.180088185124449 2.45618135184399 1746098992.61399
  2.2687474875501 0.127582203908073 0.144990799989795 2.27695294485868 1746098992.63557
 1.88848497663886 0.180482781907481 0.167801345851271 1.90449647760904 1746098992.65177
 1.72738720103944 0.138993890103652 0.171306348405701 1.74141658106414 1746098992.6679
    1.74957109751254 0.000884076713925593    0.181028650627074 1.75891193048167 1746098992.68601
   2.1362308257825 -0.143838586862634  0.243251323070756 2.15484173114169 1746098992.71373
  1.82364461413014 -0.208713651493406  0.206337778707717 1.84711026901147 1746098992.73448
  1.60457697351169 -0.239020620623706  0.125853668575776 1.62715619007557 1746098992.75083
  1.45536174966421 -0.298086583775616 0.0686397988267632 1.48715999670367 1746098992.76692
   1.33017610074689   -0.40044423873532 -0.0159837260940478 1.38923703047189 1746098992.78436
  1.63354880933662 -0.540132765015987 0.0305330206683071 1.72080137775399 1746098992.8124
  1.32874454522278 -0.338069601869564 0.0785162796107634 1.37332367937477 1746098992.83551
   1.11316567597533  -0.184596576928822 0.00473511247612539 1.12837765826589 1746098992.851
  1.13549775434854 -0.121105247062372 0.0190617558607472 1.14209674788658 1746098992.86718
   1.18141828959963 -0.0986217605348837 -0.0117935581370701 1.18558614814152 1746098992.88412
   1.5496797846743 -0.148567483434776 0.0443049860540209 1.55741537938713 1746098992.91419
  1.42488715682911   0.02438045877863 0.0256756921853761 1.42532700024801 1746098992.93794
   1.17387669863828   0.189804907766089 -0.0246948927114215 1.18937893219278 1746098992.95385
    1.08583730852056    0.242801155931996 -0.00663582983102332 1.11267205237421 1746098992.96785
  1.09383323858696  0.226557959739541 0.0508082231962862 1.11820442607931 1746098992.98421
 1.36767861182652 0.231333569032775 0.176754095072778 1.39832114177472 1746098993.01397
 1.20896192257539 0.316413708424161 0.177015365239028 1.26215728205586 1746098993.03797
 0.952577129601828  0.338302924519449 0.0637236970547881 1.01287351932272 1746098993.0541
 0.89111500904432 0.278900513299966 0.102842549658287 0.939387058503182 1746098993.06977
0.881951017523594 0.218032956238671 0.109211985370664 0.915042744939098 1746098993.08402
  1.1526573977072 0.103315099302488 0.239485384154913 1.18179792496723 1746098993.11431
   1.10107174046595 -0.0567414480112052   0.252710127522924 1.13112376782021 1746098993.14036
0.773276440873474 -0.14755857891097 0.138050103486135 0.799242027981953 1746098993.15587
   0.58775665395288 -0.0368989505996783   0.201369141066589 0.622389707333868 1746098993.17061
  0.357900638839395 -0.0648272452453324   0.144075199461927 0.391220017519221 1746098993.18672
 0.268449527637761 -0.164929555264711  0.202171473291982 0.37435305755637 1746098993.21431
0.0380705515769418 -0.143289021521969  0.130797964325062 0.197709934140083 1746098993.24187
 -0.151723173528505 -0.0898612357422956  0.0109987201975516 0.176680318430428 1746098993.25794
  -0.267918911500374 -0.00809557555191742   -0.050432523697069 0.272744424195101 1746098993.27174
-0.477644519094655 0.0525415561999033 -0.176054540729462 0.511761763968874 1746098993.2878
-0.697219853917928  0.121401043253557 -0.202308260588205 0.736058673138639 1746098993.31438
-0.804837583311574  0.137971104863303  -0.24933968937619 0.853797307319618 1746098993.34228
-0.614131143351962 0.0599221759367045 -0.273127413905774 0.674793533334925 1746098993.36007
-0.593833863509856  0.074693158924062 -0.271488456435263 0.657209028710577 1746098993.37477
-0.724904561660385  0.122993245587218 -0.369490059749036 0.822883264035342 1746098993.3915
-0.998078874174486   0.19646593235931 -0.373321481476271 1.08357243882579 1746098993.4142
 -1.40410463470502  0.373261204271664 -0.532620675594552 1.54742319224098 1746098993.4456
 -1.09965821099812  0.175620240772293 -0.458699278722198 1.20436525949762 1746098993.46164
-1.03017653864238 0.107686576977598 -0.35186517990352 1.09392376537805 1746098993.47598
 -1.11968554013139  0.119440440486926 -0.385217899099116 1.1901069520801 1746098993.49176
 -1.42942296162666 0.0825787301215869  -0.43312403931604 1.49588291096846 1746098993.51421
 -1.89678765177049  0.136999516355902 -0.509014823469658 1.96867172324454 1746098993.54454
  -1.54877171322613 -0.0511699754806089  -0.412878076196868 1.60367717820143 1746098993.56165
  -1.35882454618948 -0.0725893690557375  -0.346218327427557 1.40411555581216 1746098993.57776
  -1.43865109149275 -0.0680889416593179  -0.363898594478084 1.48552187937192 1746098993.59228
  -1.8914950969416 -0.104873705018127 -0.415852022746506 1.93950640642941 1746098993.614
 -2.40865773523162 -0.110421996779249  -0.47550892575062 2.457627685662 1746098993.64423
 -1.91947203904909 -0.135009655581363 -0.455620548337346 1.97742018798704 1746098993.6617
  -1.66551057406745 -0.0109199528415859  -0.439677361631499 1.72260294323207 1746098993.67788
 -1.67721091959199 0.0985481921902166 -0.412311221064171 1.72995628788648 1746098993.69399
  -2.0100056934282 0.0498037422964401 -0.410247227129746 2.05204924105835 1746098993.7139
  -2.63898143794754 -0.0803525916156263  -0.412156007491431 2.67218115840268 1746098993.74421
 -2.13154494191334 -0.134722014244279 -0.382834419527297 2.1698377942356 1746098993.76177
   -1.9518571976163 -0.0543054432362727  -0.245979114106329 1.96804505172726 1746098993.778
 -2.27395587463967 -0.011695955755056 -0.160694276899332 2.2796567210476 1746098993.79438
 -2.90087045853875 -0.244634984320213 -0.292108019055424 2.92578584103017 1746098993.8142
 -3.60935886448742 -0.469755528006653 -0.218653579748324 3.64636134477694 1746098993.84448
 -2.55474070423204 -0.354603641353969  -0.26210648142797 2.59251684969029 1746098993.86218
   -1.9155145269205 -0.0616015050146159  -0.212037799512262 1.92819881669021 1746098993.87931
 -1.93411921599888  0.108910757124298 -0.124324522383749 1.94116853507867 1746098993.89566
 -2.26450729879028 0.0391642052651727 -0.162752541199385 2.27068613659294 1746098993.91414
 -3.00210461647996 -0.164440767964014 -0.304091883413788 3.02194387241343 1746098993.94433
   -2.4364985138915  0.0132592475101743 -0.0830564039187081 2.43794979072005 1746098993.96206
 -1.87200447188891 0.0586937690934842 0.0971846870753341 1.87544409799504 1746098993.97833
-1.58951581509784 0.155887014788334 0.121276604501266 1.60173946153085 1746098993.99568
 -1.51523249932523   0.18681414226181 0.0654307143299853 1.52810674664374 1746098994.01368
 -1.89706288250269  0.123806723289561 -0.175113149431309 1.90914648469018 1746098994.04359
 -1.78234742383023  0.142813879054926 -0.146251271439515 1.79403109718941 1746098994.06188
 -1.71900054002416 0.0531956375741673  -0.14608868128295 1.72601695682843 1746098994.07812
  -1.81293331190165 -0.0838282958386957  -0.166645309604864 1.82250515384709 1746098994.09555
  -1.8586939727279 -0.120709261792504 -0.240982668804553 1.87813382292149 1746098994.11272
 -2.08086946806076 -0.161584096413829 -0.414453986539645 2.12788610369069 1746098994.13987
 -1.67491355856523 -0.029419067666388 -0.380114209276366 1.71775659576722 1746098994.16034
 -1.39160363138018  0.140841888823943 -0.172067495028768 1.40925665773254 1746098994.1764
 -1.42396233225023  0.192494917529484 -0.125382676258269 1.44237437319438 1746098994.19185
 -1.94274381091379  0.142319980042571 -0.209655480980999 1.9591998142784 1746098994.2224
   -1.4400952469922  0.0224322784595919 -0.0520984639453171 1.44121191275672 1746098994.23221
 -1.90773636638425 -0.287401720679434 -0.260572480040155 1.94678088392832 1746098994.25947
 -1.31922284478042 -0.320060429507423 -0.185093155922843 1.37005367380132 1746098994.27773
-0.561531740635305 -0.317244485799261 -0.127778743174745 0.657487160877131 1746098994.2939
  0.119676501006007 -0.0337048311402245   0.183078256264354 0.221305509312417 1746098994.31445
 0.733684375142435 0.0824097098704799  0.326056473469731 0.807091659293168 1746098994.34224
 2.10641916763249 0.314388258629354 0.401763171957798 2.16731523624856 1746098994.36596
  3.0599097367442 0.371396035705805 0.219223177275208 3.09015232857777 1746098994.38193
  3.82240746508484  0.413468897293606 0.0440187813379509 3.84495682827207 1746098994.39793
  4.4190979273346 0.525236917278191 0.144407448966484 4.45254464570113 1746098994.41441
 5.71526405108736 0.293353060837338 0.249652675662217 5.72823058635208 1746098994.44177
   5.17726109788801 -0.0444088700458005   0.150944757993258 5.17965143068613 1746098994.46452
  4.01050985790771 -0.515743196492893  0.213641289338272 4.04917559085967 1746098994.48177
 3.56442408634028 -0.75756392847713  0.25439117908005 3.65290802580714 1746098994.49785
  3.63655094156443 -0.662834006489571    0.1552625713675 3.69972406225381 1746098994.51435
  4.57464735376201 -0.316002500218029  0.224644052175403 4.59104791323327 1746098994.54028
 4.33204546808125 0.110299027114513 0.337341621814958 4.34655992512636 1746098994.56747
 2.64307485492471  0.58149813454023 0.331073503241482 2.72646188929125 1746098994.58366
 1.76028817652347 0.496590237882619 0.410293259111625 1.87444842213412 1746098994.59797
 1.73350994048248 0.485417994441445 0.390745334262234 1.84211000196156 1746098994.61422
 2.22052845537397  0.43449087778627 0.451918929086896 2.30732738519527 1746098994.63959
 2.43858749969468 0.435171220842956  0.45885342482182 2.51925176403388 1746098994.66733
  1.7975271021447 0.480684893529691 0.299280412714294 1.88460351672356 1746098994.68397
 1.37943586274911 0.315381653435183 0.337793265191602 1.45478973627487 1746098994.69995
0.854956614044274 0.185873113311127 0.194995777296034 0.896394432888393 1746098994.7142
 0.657542700877375 -0.114292544482644  0.226032007372695 0.704638671631326 1746098994.73844
  0.362705679868077 -0.0769708992152273   0.351784161451976 0.511108624250301 1746098994.76751
0.0714694533377416 0.0209084813992704    0.2014495787024 0.214771925805478 1746098994.78431
-0.0224300452625971   0.090295228859233   0.172008951429911 0.195559235673596 1746098994.79995
-0.136755120020723  0.113513778559521 0.0946849613267309 0.201376718307224 1746098994.81422
 -0.336299668690288 -0.0637594103918259   0.024574534303208 0.343171440115477 1746098994.83553
-0.474562751063088 -0.150396621478488 0.0228254763944673 0.498347219136762 1746098994.86675
  -0.35690097064592  -0.143917117830081 -0.0340710080658423 0.386330523312797 1746098994.88413
  -0.25139463724037 -0.0655497409315109  -0.029259436623254 0.261442434965932 1746098994.8996
 -0.230451932681958  0.0171038351217846 -0.0676559102398369 0.240786122197904 1746098994.91362
  -0.312015157221478 -0.00400415492724234   -0.136654705902749 0.34065231576784 1746098994.93356
 -0.437094310311819 -0.0349010008737685  -0.272469499917256 0.516245236640606 1746098994.96578
-0.347256823239635  0.061105400012156 -0.576282480717594 0.675590607379316 1746098994.98345
-0.213323436693036  0.050613226731111 -0.746042842643109 0.77759148041994 1746098994.99937
-0.205644080175866 0.0257050481371954 -0.868753167906494 0.893130619763247 1746098995.01442
 -0.309802462046083 -0.0625998316577035   -1.07099063299603 1.11665448567523 1746098995.03215
-0.472958872019845 -0.203698861268881  -1.25610498680619 1.35756512130501 1746098995.06435
 -0.402379093919158 -0.0458212509565664  -0.960781740790151 1.04264570957645 1746098995.08354
 -0.330173421274518 -0.0628189582025425  -0.518847963653674 0.618194078759525 1746098995.09879
 -0.351211810936044 -0.0170653233908609 -0.0931137811164612 0.363745979547835 1746098995.11424
 -0.520969867380699 -0.0634817939601843   0.327265418986893 0.618499955818699 1746098995.13167
  -0.7527422618781 -0.113752559881012  0.824899330356948 1.1225058854724 1746098995.16384
 -0.631028846812431 -0.0614295512147637    1.37747996207669 1.51638452946299 1746098995.18333
-0.421736051986875 -0.187632778284351   1.86109403187484 1.91748229522787 1746098995.19925
 -0.267841667414246 -0.0290351789513251    2.30131118428961 2.317027269446 1746098995.21453
-0.298529941520147  0.100576743307001   2.61464511253631 2.63355365842207 1746098995.23199
-0.330495083544641  0.310597493826718   3.40304063428523 3.4331302570708 1746098995.25956
-0.217061290231731  0.270587882882424   3.61993997332779 3.63652290197329 1746098995.2821
0.0574921188845341 0.0293553804841927   3.28035997139339 3.28099506613729 1746098995.29933
 0.179819534500744 -0.191344675967984   2.90546599616969 2.91730706387033 1746098995.31454
 0.144833366597855 -0.264968262796849   2.89360240403316 2.90931602906871 1746098995.33151
 0.186772258202183 -0.437975740281837   3.38154373329261 3.41490038590878 1746098995.3579
 0.115683604053531 -0.321965656963558   3.23211596649182 3.25017202642601 1746098995.38544
0.0308472333880354  -0.14192513945938   2.35824327353337 2.36271150041296 1746098995.40007
-0.19677826579767  0.38130209694859   1.8973550913093 1.94526844356892 1746098995.41424
-0.594063627768435  0.569426273105454   1.82617030295367 2.00301169485604 1746098995.42996
-0.860644194626611  0.669386411855885   2.15942853425216 2.4190738295191 1746098995.45378
-1.13155700075478  0.81661992227462  2.64082410519756 2.98684470604106 1746098995.486
-0.82522097485782 0.516355252194691   2.3007052400546 2.49817073184141 1746098995.5021
-0.44417044009945 0.224205345251941  1.45936216827557 1.54184738378727 1746098995.51463
-0.284199028405127  0.126964464072989   1.30415536891517 1.34078719010662 1746098995.52941
-0.173580622078577  0.125425643953174   1.08942500030519 1.11027413543332 1746098995.5523
-0.105738912468452  0.121888090673044  0.970635497986925 0.983956652607348 1746098995.58583
-0.0457976297065005 -0.0136579405523698   0.718249856543935 0.719838050294821 1746098995.60201
 0.0300862140096055 -0.0848999679605944   0.260129624745406 0.275282775529686 1746098995.61452
  0.0342298268665814 -0.00911446508963852    0.113452720915223 0.118854004578112 1746098995.62754
0.151032353250319 0.103196950249202 -0.45063768378959 0.4863483364013 1746098995.64734
0.217993550282013 0.421482450078576 -1.11425578525889 1.21108818781776 1746098995.68339
0.105251878537512 0.415091611132673 -1.68894494501049 1.74238745141398 1746098995.70078
0.0248558173094754  0.163332523538597  -1.93978049537621 1.94680345570414 1746098995.71434
-0.0794557458435001 -0.0312502304932424   -2.31795925918279 2.31953118532273 1746098995.72913
-0.32425607854999 -0.26385392125038 -2.78120280553809 2.81244554467616 1746098995.74649
-0.481678899597948 -0.246204637561386  -3.55086001008605 3.59182935244743 1746098995.78346
-0.498866587056152 -0.440062501009773  -3.48562877285209 3.54853925138364 1746098995.80015
-0.561049404333336 -0.689180710069299  -3.31024321400492 3.42745629018082 1746098995.81447
-0.617925419889632 -0.688935760497557  -3.13252661647579 3.26637219397414 1746098995.82911
-0.612847097150866 -0.682244833656723   -3.2069027208931 3.33545568683038 1746098995.84561
-0.752212002411741 -0.585568506627339   -4.2115361222082 4.31807247289697 1746098995.87985
-0.606641098684171 -0.429909169583008  -4.11645646142304 4.18306695087418 1746098995.89954
-0.762834843180958  0.212345940476977  -2.79668008030455 2.90661784002993 1746098995.91446
-0.713422116488566    0.5098183588338  -2.07352882042013 2.25131242709934 1746098995.92809
-0.581132494828205  0.555121305524983  -2.06268839806374 2.21372041321838 1746098995.94397
