  -0.159204123703 -0.00474115637931    0.164484627684 1746098985.26
-0.123640451165 0.0245614138041  0.134572393177 1746098985.28
-0.0798703504916  0.0601408870911  0.0988718030173 1746098985.3
-0.0326785321788  0.0976334958585  0.0619325688817 1746098985.31
 0.013201379139   0.13266707577 0.0277898615546 1746098985.33
   0.0537246544809     0.161447345315 -0.000688797231455 1746098985.35
 0.0859899415347   0.181190447011 -0.0221294179319 1746098985.38
  0.108447868167   0.190354822114 -0.0366038117941 1746098985.4
  0.120860740658   0.188675300802 -0.0452606599153 1746098985.41
  0.124064352112    0.17703900924 -0.0497677850079 1746098985.43
  0.119616674957   0.157258129115 -0.0517367341294 1746098985.45
  0.109424840091   0.131789916403 -0.0522885772799 1746098985.48
  0.095424468677   0.103438525555 -0.0518630917823 1746098985.5
 0.0793545614393   0.075057596611 -0.0502921724427 1746098985.51
0.0626387843004 0.0492656943675 -0.047078636436 1746098985.53
 0.0463586246964  0.0281901346482 -0.0417671338156 1746098985.55
0.0312887788271 0.0132632398572 -0.034278299977 1746098985.58
 0.0179598511827 0.00510020245703 -0.0251012809484 1746098985.6
0.00671648159922 0.00348294433724 -0.0152922372083 1746098985.61
-0.00225110147355  0.00745843494807 -0.00628897094453 1746098985.63
-0.00890931064373   0.0155372465666 0.000395178087297 1746098985.65
-0.0134079646317  0.0259561510952 0.00350629448242 1746098985.68
-0.0161086324229  0.0369545506213 0.00232309100107 1746098985.7
 -0.0175851066479   0.0470130313907 -0.00319526438596 1746098985.71
 -0.018570370737  0.0550140151288 -0.0124093385288 1746098985.73
 -0.019839013924  0.0603060041555 -0.0241297885234 1746098985.75
-0.0220364568112  0.0626776191722  -0.036831950686 1746098985.78
-0.0254902601231  0.0622674860212 -0.0488987937346 1746098985.8
-0.0300558800318  0.0594448517023 -0.0588433225094 1746098985.81
-0.0350518086456  0.0546923750069 -0.0654790758654 1746098985.83
-0.0393231298713  0.0485112959541 -0.0680275102696 1746098985.85
-0.0414401815777  0.0413573776779 -0.0661671322981 1746098985.88
-0.0399986247149  0.0336088687086  -0.060037617499 1746098985.9
-0.0339513388686  0.0255654436513 -0.0502124229386 1746098985.91
 -0.022883897238  0.0174758178093 -0.0376476349031 1746098985.93
-0.00715230179438  0.00958759696242  -0.0236066595852 1746098985.95
  0.0121650357414  0.00220544085409 -0.00955429401753 1746098985.97
  0.0334972300745 -0.00426374871062  0.00298628463141 1746098986
  0.0551334366735 -0.00930208952727   0.0126120656499 1746098986.01
 0.0755974064186 -0.0123254262348  0.0182382580389 1746098986.03
 0.0939317899877 -0.0127835310708  0.0192839374365 1746098986.05
  0.109803917864 -0.0102985214735  0.0158030540569 1746098986.07
   0.123398694189 -0.00480711447327  0.00851987518306 1746098986.1
   0.135131428235  0.00333582512462 -0.00125670119194 1746098986.11
  0.145272454887  0.0133300183231 -0.0118387875287 1746098986.13
 0.153607570234 0.0239985717244 -0.021453118199 1746098986.15
   0.15925348026  0.0339470767227 -0.0285652416629 1746098986.17
  0.160706424166  0.0417819561514 -0.0321651004451 1746098986.19
   0.15613586748  0.0463399959023 -0.0319505610402 1746098986.21
  0.143861851202  0.0468775611751 -0.0283673250331 1746098986.23
  0.122895075631  0.0431792139212 -0.0224957111629 1746098986.25
 0.0933910182566  0.0355678708179 -0.0158088689408 1746098986.27
  0.0568829458399   0.0248250483118 -0.00985504712039 1746098986.3
  0.0162114329863   0.0120512494805 -0.00593255298969 1746098986.31
 -0.0248540147183 -0.00149398504055 -0.00482692763644 1746098986.33
 -0.0622245019075  -0.0145375170854 -0.00666574826151 1746098986.35
-0.0921950980942 -0.0259036079616 -0.0109203667105 1746098986.37
   -0.1120821638 -0.0345880644124 -0.0165511761089 1746098986.4
 -0.120655881956 -0.0398060081838 -0.0222607014357 1746098986.41
 -0.118285163094 -0.0410281680997 -0.0267945327259 1746098986.43
 -0.106783616846 -0.0380167610967 -0.0292202218561 1746098986.45
 -0.089010427822 -0.0308628767775 -0.0291216746338 1746098986.47
-0.0683224474532 -0.0200169014455 -0.0266692558614 1746098986.5
 -0.0479877630951 -0.00629602151677  -0.0225570935792 1746098986.51
-0.0306604031542 0.00914864856814 -0.0178299670337 1746098986.53
-0.0179900232527  0.0249172214646 -0.0136448441625 1746098986.55
-0.0104091511842   0.039499358304 -0.0110223396072 1746098986.56
-0.00711103326198   0.0514535317087  -0.0106408463208 1746098986.59
-0.00620715171921   0.0596033247917  -0.0127133510529 1746098986.61
-0.0050358964379  0.0632189911005 -0.0169676361378 1746098986.63
-0.000581282833827    0.0621498229959   -0.0227286338951 1746098986.65
0.0100492477621 0.0568765400304 -0.029081098384 1746098986.66
 0.0291472797391  0.0484638006258 -0.0350752050195 1746098986.69
 0.0579911071516  0.0384104877214 -0.0399300202002 1746098986.71
 0.0965629252223   0.028416509212 -0.0431912982652 1746098986.73
  0.143448672912  0.0201042890746 -0.0448102600332 1746098986.75
  0.195950225167  0.0147455655572 -0.0451268206102 1746098986.76
  0.250405936717  0.0130461037162 -0.0447610115594 1746098986.79
  0.302677620843  0.0150317756813 -0.0444363265425 1746098986.81
  0.348728380977  0.0200609161379 -0.0447745305828 1746098986.83
  0.385194862544   0.026963393451 -0.0461096882968 1746098986.85
  0.409855624914  0.0342810514344 -0.0483674764872 1746098986.86
  0.421916246901  0.0405622715708 -0.0510436506288 1746098986.89
 0.422067991367 0.0446503359237 -0.053294357624 1746098986.91
  0.412322094276  0.0459046123507 -0.0541246461624 1746098986.93
  0.395664861838  0.0443065196772 -0.0526358453857 1746098986.95
  0.375608808115  0.0404270139745 -0.0482742212214 1746098986.96
  0.355724904846  0.0352642203002 -0.0410182719434 1746098986.99
  0.339230110336  0.0299914927678 -0.0314529151208 1746098987.01
  0.328679026015  0.0256790202527 -0.0207039961833 1746098987.03
   0.32577897485  0.0230586988397 -0.0102401312629 1746098987.05
   0.331323185389    0.022389170721 -0.00158228007186 1746098987.06
  0.345221633891  0.0234487375752 0.00401435511676 1746098987.08
  0.366603048069  0.0256472263372 0.00583329975731 1746098987.11
  0.393961780786  0.0282156070107 0.00386213113193 1746098987.13
   0.425327142417   0.0304144197954 -0.00118636876861 1746098987.15
   0.458438825977   0.0317035464641 -0.00799948470923 1746098987.16
  0.490919028182  0.0318342101665 -0.0149056433447 1746098987.18
  0.520438082352  0.0308513749918 -0.0201778542156 1746098987.21
  0.544874136963  0.0290210191214 -0.0223381025289 1746098987.23
  0.562467668485  0.0267141478495 -0.0204078830179 1746098987.25
  0.571968430304   0.024284580431 -0.0140668495906 1746098987.26
    0.57276648599   0.0219720453538 -0.00370227931479 1746098987.29
  0.564991596483  0.0198505054285 0.00964897347858 1746098987.31
 0.549558922014 0.0178287148699 0.0244506734428 1746098987.33
 0.528137246747 0.0156988115325 0.0388866238409 1746098987.35
  0.50302166564 0.0132200845895 0.0511232394003 1746098987.36
 0.476906369591  0.010218525536 0.0595872958994 1746098987.38
  0.452572387763 0.00667820561293  0.0632274198435 1746098987.41
  0.432525762069 0.00279892442224  0.0617226141592 1746098987.43
   0.418639226266 -0.00100210184191   0.0555973314371 1746098987.45
   0.411860703804 -0.00415681776336   0.0462059400802 1746098987.47
   0.412050472665 -0.00607711164399   0.0355647829992 1746098987.49
   0.417992347642 -0.00632594277871   0.0260382407212 1746098987.51
   0.427592847909 -0.00478730717817   0.0199212666155 1746098987.53
   0.438241723947 -0.00178463847853   0.0189946219728 1746098987.55
  0.447268093705 0.00189776519576  0.0241483956948 1746098987.57
  0.452400935797 0.00511551418823  0.0351648923526 1746098987.59
   0.45213962919 0.00658081153656  0.0507211789793 1746098987.61
  0.445961525202 0.00515437914254  0.0686211316855 1746098987.63
   0.434333339274 0.000145315690803   0.0862107752172 1746098987.65
   0.418539762323 -0.00845814310848    0.100885601645 1746098987.67
   0.40038242742 -0.0198923704833   0.110577415888 1746098987.68
  0.381824172829 -0.0326912391902   0.114116280951 1746098987.71
  0.364652847299 -0.0449212786919   0.111396644783 1746098987.73
 0.350219029573 -0.054531907896  0.103325203309 1746098987.75
 0.339272337169 -0.059745837306 0.0915778722213 1746098987.77
  0.331892622197 -0.0594065343365  0.0782317277117 1746098987.78
  0.327493785139 -0.0532114419025  0.0653565955234 1746098987.81
  0.324872499891 -0.0417863198717  0.0546481273436 1746098987.84
  0.322280086676 -0.0265897579479  0.0471639823694 1746098987.85
   0.317508167916 -0.00966986380074    0.043195396797 1746098987.87
  0.307991770438 0.00667858231543  0.0422767519352 1746098987.88
 0.290942261398 0.0202924384658 0.0433121029623 1746098987.91
 0.263524006428 0.0294864584725 0.0447828585827 1746098987.94
 0.223082461778 0.0333085863227 0.0449949327633 1746098987.95
 0.167419265008 0.0316637806196 0.0423252595119 1746098987.97
0.0950947530965 0.0252903368693 0.0354345837129 1746098987.98
0.00572355821107  0.0155988605455  0.0234237918889 1746098988.01
 -0.099782201931 0.00440756391987  0.0059226314734 1746098988.04
  -0.219071921728 -0.00637559196316  -0.0168893831267 1746098988.05
  -0.34836218394 -0.0150663363833  -0.044321245538 1746098988.07
 -0.482617482921 -0.0204596618623 -0.0752536006065 1746098988.09
 -0.615909072429 -0.0219882144425  -0.108250434611 1746098988.11
 -0.741925512931 -0.0197645570224  -0.141684470083 1746098988.14
   -0.8545814833 -0.0145097864949  -0.173865374888 1746098988.16
  -0.948652494137 -0.00738879919253   -0.203164689347 1746098988.17
   -1.02035475096 0.000215772214522   -0.228135293811 1746098988.19
  -1.06779144287 0.00695319776832  -0.247624987734 1746098988.21
  -1.0911987564 0.0117388501814 -0.260882661137 1746098988.24
 -1.09294729295 0.0139359354476 -0.267651580018 1746098988.26
 -1.07728666017 0.0134531791522 -0.268238235999 1746098988.27
 -1.04985857532 0.0107372120117 -0.263538898211 1746098988.29
  -1.01703917199 0.00665468668122  -0.255002511174 1746098988.31
 -0.985196731096 0.00228056459225  -0.244511451505 1746098988.34
  -0.959962712421 -0.00136814530162    -0.23417336854 1746098988.36
  -0.945611341622 -0.00359566057088    -0.22603750768 1746098988.37
  -0.944626959468 -0.00422308195048   -0.221773282977 1746098988.39
  -0.957509997159 -0.00366049063737   -0.222369893027 1746098988.41
 -0.982835218048 -0.0028245651316  -0.227925031694 1746098988.44
   -1.01753731171 -0.00290774934316   -0.237582176067 1746098988.46
    -1.0573686604 -0.00504519479208   -0.249648637656 1746098988.48
   -1.09745858971 -0.00995814291839   -0.261885911801 1746098988.49
  -1.13290244642 -0.0176669061882  -0.271920442384 1746098988.51
  -1.15931696818 -0.0273572607447  -0.277689524255 1746098988.54
  -1.17330953488 -0.0374518492074  -0.277824556811 1746098988.56
  -1.17281964026 -0.0458908805829  -0.271887219347 1746098988.58
  -1.15730096012 -0.0505757230616  -0.260410205071 1746098988.59
   -1.1277234972 -0.0498867320527  -0.244742334424 1746098988.61
  -1.08639065973 -0.0431620973296  -0.226743918247 1746098988.64
-1.03658884339 -0.03102334358 -0.20840949208 1746098988.66
 -0.982116489885 -0.0154570498442  -0.191504561585 1746098988.68
  -0.926768228813 0.000391846104847   -0.177290866033 1746098988.69
-0.873865060022 0.0127005605793  -0.16638655036 1746098988.71
-0.825913384472 0.0176477602232 -0.158772159581 1746098988.74
-0.784443700596 0.0121680076174 -0.153919623036 1746098988.76
  -0.750034706791 -0.00536807546229   -0.150997029368 1746098988.78
-0.722486071022 -0.034693258855 -0.149091752617 1746098988.79
 -0.701075717834 -0.0735122001973  -0.147399256341 1746098988.81
  -0.6848302588 -0.117745544996 -0.145341634165 1746098988.84
-0.672748674391 -0.162118666979 -0.142602795354 1746098988.86
-0.663943825784 -0.200989751727 -0.139089481973 1746098988.88
-0.657695480907 -0.229259075142 -0.134843488881 1746098988.89
-0.653433066689 -0.243182970092 -0.129937600728 1746098988.91
-0.650679505819 -0.240936450101 -0.124385963894 1746098988.94
-0.648988042131 -0.222823191932 -0.118091431211 1746098988.96
-0.647896192562 -0.191108475257 -0.110841310656 1746098988.98
-0.646910834311 -0.149532017765 -0.102351590792 1746098989
 -0.645529248608  -0.102623240644 -0.0923493854575 1746098989.01
 -0.643292289365 -0.0549741192167 -0.0806747565625 1746098989.04
  -0.63985608304 -0.0106164097184  -0.067377558712 1746098989.06
 -0.635058102104  0.0273945127773 -0.0527844161362 1746098989.08
-0.628945505763 0.0571517803115 -0.037516503124 1746098989.1
 -0.621733511959  0.0778517829924 -0.0224493782918 1746098989.11
  -0.613673600967   0.0896029920171 -0.00861854949822 1746098989.14
 -0.604836286566  0.0931754052145 0.00291493907304 1746098989.16
-0.594846159818 0.0897630017843 0.0112181723899 1746098989.18
-0.582637384652 0.0807984086973 0.0156367075851 1746098989.2
-0.566312661391 0.0678226036591 0.0159206892371 1746098989.21
-0.543177943065 0.0523879574191 0.0123093954151 1746098989.24
  -0.50998790736  0.0359684278271 0.00556092612254 1746098989.26
  -0.463383097567   0.0198645591312 -0.00308225086618 1746098989.28
  -0.40044545083 0.00511315194457 -0.0119964993162 1746098989.3
   -0.31926133207 -0.00757092978864  -0.0193465190165 1746098989.31
   -0.2193709894 -0.0177903956366 -0.0233079692583 1746098989.34
 -0.102003137713 -0.0253830608899 -0.0223162289033 1746098989.36
  0.029961787154 -0.0302739330806 -0.0153009338177 1746098989.38
   0.172297028801  -0.0323056747376 -0.00185841795263 1746098989.4
  0.319941898492 -0.0311124864823  0.0176822739982 1746098989.41
 0.467615709431 -0.026102641077 0.0423270761515 1746098989.44
  0.610410868186 -0.0165891883478  0.0706168771578 1746098989.46
   0.744256919882 -0.00206112639335    0.100924413965 1746098989.48
 0.866187882849 0.0174678784184  0.131782936779 1746098989.5
 0.974399485957 0.0411404465426   0.16216572446 1746098989.51
  1.06813448876 0.0670887556895  0.191640778756 1746098989.54
  1.14746829039 0.0925188065891  0.220352763138 1746098989.56
  1.2130751534 0.114082703544 0.248829061801 1746098989.58
 1.26603798127 0.128491498844 0.277657113768 1746098989.6
 1.30773005429 0.133238592071 0.307121036156 1746098989.61
 1.33975884694 0.127250309514 0.336903463104 1746098989.64
 1.36393441643 0.111276867998 0.365946279331 1746098989.66
  1.38221826333 0.0878898668397  0.392523686964 1746098989.68
  1.39662428812 0.0610502840453  0.414523875247 1746098989.7
  1.40907162553 0.0353267358135  0.429877611079 1746098989.71
  1.42121338605 0.0149430373961  0.437029448035 1746098989.74
   1.43427308264 0.00288596675309    0.43533175481 1746098989.76
    1.44891141232 0.000291660556287    0.425258112479 1746098989.78
   1.46513121919 0.00625545474855   0.408377038734 1746098989.8
  1.48222090357 0.0180978433835  0.387087429101 1746098989.81
  1.49874126875 0.0320029923111  0.364176323355 1746098989.83
  1.51257274588 0.0438600989584  0.342300987941 1746098989.86
  1.52104951793 0.0501040428699  0.323510893109 1746098989.88
  1.52120646779 0.0483738046513  0.308910449633 1746098989.9
  1.51015016483 0.0378709790101  0.298527511461 1746098989.91
  1.48553578518 0.0193821417142  0.291406138475 1746098989.93
    1.44609195796 -0.00499652020872    0.285895155323 1746098989.96
   1.39209580147 -0.0323425298297   0.280065130959 1746098989.98
   1.32567711043 -0.0594859495693   0.272162140743 1746098990
   1.25083859843 -0.0835735334965   0.261001373312 1746098990.01
   1.1731232983 -0.102526813421  0.246218439257 1746098990.03
  1.09893255756 -0.115329851521  0.228328383393 1746098990.06
  1.03458097471 -0.122112540415  0.208585367043 1746098990.08
 0.985247703572 -0.124026138741   0.18868039351 1746098990.1
 0.954028371367 -0.122937910017  0.170349849038 1746098990.11
0.941294469566 -0.12099916874 0.154985141001 1746098990.13
 0.944520870311 -0.120162295219   0.14332902268 1746098990.16
  0.95865174925 -0.121733566564  0.135319544925 1746098990.18
 0.976958733712 -0.126047086607  0.130106223674 1746098990.2
 0.992230966468 -0.132329379726  0.126225872536 1746098990.21
 0.998055492958 -0.138794849917   0.12189668796 1746098990.23
 0.989920860782 -0.142972059559  0.115372736769 1746098990.26
 0.965915468538 -0.142215238709  0.105296202634 1746098990.28
 0.926886539434 -0.134312808022   0.09098839203 1746098990.3
 0.876052136923 -0.118074295676 0.0726298098835 1746098990.31
  0.818184499809 -0.0937669945133  0.0512936474039 1746098990.33
  0.758574779859 -0.0632891502276  0.0288162361769 1746098990.35
  0.702023391874 -0.0300083696399  0.0075127557011 1746098990.38
  0.652070366059 0.00174180398489 -0.0102247769653 1746098990.4
  0.610598799251  0.0274377911407 -0.0223820374501 1746098990.41
  0.577837702488  0.0432727664227 -0.0277441020102 1746098990.43
   0.55268874615  0.0470043868581 -0.0261949800715 1746098990.45
 0.533230877509 0.0385461347216 -0.018822816918 1746098990.48
   0.517233335628   0.0201463777414 -0.00779581826051 1746098990.5
      0.502533472 -0.00391634907131  0.00397705622933 1746098990.51
  0.487199760778 -0.0280849574717  0.0133386022395 1746098990.53
  0.469481144378 -0.0465801656093  0.0174330390362 1746098990.55
   0.44761655024 -0.0545446818024  0.0142054629606 1746098990.58
  0.419622268086 -0.0490337416211 0.00275696117208 1746098990.6
  0.383179004551 -0.0296424685479 -0.0165059535701 1746098990.61
  0.335705778036 0.00136006101208  -0.041946421713 1746098990.63
  0.274645628927  0.0394146265561 -0.0709744710557 1746098990.65
 0.197916547349 0.0784930948978 -0.100472717496 1746098990.68
 0.104420860799  0.112195595574 -0.127299150433 1746098990.7
-0.00552403399742    0.134919055326   -0.148790705814 1746098990.71
-0.129960786973  0.142889759908 -0.163195930581 1746098990.73
-0.265351671543  0.134883831268 -0.169976138228 1746098990.75
-0.406928232769  0.112514418984  -0.16993061035 1746098990.78
-0.549261648246 0.0800330591094 -0.165122324804 1746098990.8
-0.686930260561 0.0436669553827 -0.158605856203 1746098990.81
-0.815142389563 0.0105866484448 -0.153986595141 1746098990.83
-0.930193016426 -0.012338422113 -0.154866825966 1746098990.85
  -1.02968407793 -0.0197950288498  -0.164255229061 1746098990.88
   -1.11250484295 -0.00907517872264   -0.184027980441 1746098990.9
 -1.17863344149 0.0192773975295 -0.214528746615 1746098990.91
 -1.22886546861 0.0613618933016 -0.254379905462 1746098990.93
 -1.26458620656  0.110404998277 -0.300548607099 1746098990.95
 -1.28767316803  0.157776432147 -0.348671851024 1746098990.98
-1.30055247408 0.194372186597 -0.39360078129 1746098991
 -1.30635645069   0.21212576392 -0.430084542566 1746098991.01
 -1.30906716838  0.205379232292 -0.453487268958 1746098991.03
 -1.31350365946  0.171873842216 -0.460424619723 1746098991.05
 -1.32503065581  0.113196805807 -0.449220776108 1746098991.07
 -1.34893348716 0.0346253901683 -0.420119966086 1746098991.1
  -1.38950570249 -0.0555854083238  -0.375231066189 1746098991.11
 -1.44900970291 -0.147342626279  -0.31822965973 1746098991.13
 -1.52676200376 -0.230104706154 -0.253878945684 1746098991.15
 -1.61862635638 -0.294326347285   -0.1874517649 1746098991.17
  -1.7171443644 -0.332771488085 -0.124138705768 1746098991.2
   -1.8123953143  -0.341526917875 -0.0685154335266 1746098991.21
  -1.89348673924  -0.320577258954 -0.0241231953427 1746098991.23
  -1.95038965878   -0.27384089317 0.00680323943528 1746098991.25
 -1.97570825309 -0.208621941026 0.0234426787412 1746098991.27
 -1.96596022992 -0.134510270261 0.0263266954821 1746098991.3
  -1.92205776532 -0.0618570805322  0.0171235855323 1746098991.31
     -1.8488938401 -5.35272216254e-05  -0.00170128583357 1746098991.33
  -1.75418855654  0.0440824395478 -0.0272965360791 1746098991.35
  -1.64694809525  0.0674825270787 -0.0568387342189 1746098991.37
  -1.53596450081  0.0712946592698 -0.0878765946798 1746098991.4
 -1.42871508731 0.0605019254742  -0.11854577395 1746098991.41
 -1.33084179444 0.0427440454801 -0.147624309496 1746098991.43
 -1.24617818935 0.0265816456853 -0.174437821045 1746098991.45
 -1.17712381125 0.0195815384508 -0.198660892126 1746098991.47
 -1.12509416662 0.0266470856077 -0.220085515477 1746098991.5
  -1.0908109645 0.0489593481591 -0.238432139345 1746098991.51
 -1.07431415887 0.0837495188692 -0.253262768463 1746098991.53
 -1.07472411555   0.12493109226 -0.264023472898 1746098991.55
 -1.08990333475  0.164430818967 -0.270204001697 1746098991.57
 -1.11622202273  0.193915193218 -0.271565101217 1746098991.6
 -1.14860718768  0.206542256891 -0.268359468988 1746098991.61
   -1.180965948  0.198384032191 -0.261467414016 1746098991.63
 -1.20695406061  0.169250913347 -0.252385587298 1746098991.65
 -1.22094859919  0.122780884446 -0.243042478701 1746098991.66
 -1.21901087415 0.0658030520899 -0.235458414659 1746098991.7
  -1.19961062967 0.00711772016177  -0.231309465516 1746098991.71
  -1.16392764381 -0.0440679864673   -0.23148460771 1746098991.73
  -1.11563790793 -0.0797612607375  -0.235737513404 1746098991.75
  -1.06020199435 -0.0945755143634  -0.242525405057 1746098991.76
  -1.00377361859 -0.0866541864633  -0.249097570399 1746098991.79
 -0.951915575876 -0.0579712137666  -0.251849318632 1746098991.81
 -0.908341086472 -0.0139610950163  -0.246901639541 1746098991.83
 -0.87389541352 0.0374513668012 -0.230814014309 1746098991.85
-0.845963260215 0.0872449434764 -0.201299618479 1746098991.86
-0.818437106631  0.126867088006 -0.157798203327 1746098991.89
-0.782312140938  0.149688628109 -0.101777689011 1746098991.91
 -0.726886488969   0.152089322927 -0.0366807313915 1746098991.93
-0.641446238859  0.133985527715 0.0324998006505 1746098991.95
-0.517214097882   0.09871486478 0.0999560394549 1746098991.96
-0.349255653613 0.0523118575224  0.159982903214 1746098991.99
 -0.137990789288 0.00232203896263   0.207907804523 1746098992.01
  0.110026989699 -0.0436113525816   0.240854814831 1746098992.03
  0.382309224026 -0.0791126874685   0.258196550382 1746098992.05
 0.661691847012 -0.100130160565  0.261608558607 1746098992.06
 0.928530513356 -0.105489956555   0.25471986326 1746098992.09
   1.16350209179 -0.0968632544267   0.242432593978 1746098992.11
   1.35053145281 -0.0781851610124   0.230046362673 1746098992.13
  1.47930672932 -0.054678115588  0.222356054236 1746098992.15
   1.54690321779 -0.0317098430951   0.222888537917 1746098992.16
   1.55819638441 -0.0137396822032   0.233406565466 1746098992.18
    1.52497482595 -0.00357122800077    0.253747135102 1746098992.21
    1.46391648952 -0.00204278978676    0.281992606944 1746098992.23
    1.39381304232 -0.00817320317717    0.314912088934 1746098992.25
   1.33256987943 -0.0196700047615   0.348569787945 1746098992.26
   1.29453989309 -0.0336292406316   0.378980762329 1746098992.28
   1.28866001433 -0.0472299225032    0.40270128911 1746098992.31
   1.31767311148 -0.0582543887738   0.417266119393 1746098992.33
   1.37848170074 -0.0653362823278   0.421422384697 1746098992.35
  1.46345216907 -0.067927492303  0.415152877718 1746098992.37
   1.56231973935 -0.0660574407011   0.399521208604 1746098992.39
   1.66426628415 -0.0600097371804   0.376398846731 1746098992.41
   1.75976195728 -0.0500502393417   0.348143200075 1746098992.43
   1.84186164194 -0.0363083394806   0.317286609667 1746098992.45
   1.90679629504 -0.0188531629807   0.286274503132 1746098992.47
   1.95385851269 0.00206204147375   0.257266136219 1746098992.49
  1.98471669473 0.0256713364427  0.231991864129 1746098992.51
  2.00238184548 0.0503994156659  0.211652007792 1746098992.53
  2.01008854371 0.0737130548719  0.196845156455 1746098992.55
  2.01033915609 0.0922063600765  0.187524970071 1746098992.57
2.00430358519 0.10195178872 0.18299773498 1746098992.59
  1.99167501869 0.0990843356852  0.181980635582 1746098992.61
  1.97097233279 0.0805251008837  0.182737634565 1746098992.64
   1.9401771292 0.0447064884822  0.183295258236 1746098992.65
    1.89752338546 -0.00785463001232    0.181718650058 1746098992.67
    1.8422356515 -0.0742718434532      0.176406469 1746098992.69
 1.77503770721 -0.14937904227 0.166349664426 1746098992.71
  1.69831608709 -0.226211055812  0.151299807038 1746098992.73
 1.61590564685 -0.29681427446 0.131809113474 1746098992.75
  1.53255035732 -0.353261639658  0.109132822643 1746098992.77
  1.45316458563 -0.388707806517 0.0850168487824 1746098992.78
  1.38206238008 -0.398315399637 0.0614195866854 1746098992.81
   1.3223242696 -0.379911388887 0.0402284783029 1746098992.84
  1.27543197283 -0.334285429107 0.0230268215841 1746098992.85
  1.24123080027 -0.265105834178  0.010947531939 1746098992.87
   1.21819494926   -0.17848839338 0.00462522372235 1746098992.88
   1.20389392789 -0.0822965240834 0.00423378497059 1746098992.91
   1.19551034477  0.0147264789747 0.00957936698739 1746098992.94
  1.19025567017  0.103888332724 0.0202111704586 1746098992.95
  1.18557434419  0.177444394198 0.0355145109881 1746098992.97
  1.17910503777  0.229374903211 0.0547603986154 1746098992.98
  1.16845578494  0.255971610217 0.0771005186118 1746098993.01
 1.15091876975 0.256178073163 0.101513371911 1746098993.04
 1.12327920884 0.231646954462 0.126723779925 1746098993.05
 1.08185198472 0.186502476379 0.151130727833 1746098993.07
 1.02281401636 0.126827703954 0.172783629146 1746098993.08
 0.942806659089 0.0599323527239  0.189441186852 1746098993.11
   0.839686996276 -0.00650876301954    0.198729628795 1746098993.14
  0.713239418108 -0.0653326309421   0.198391892536 1746098993.16
 0.565642902906 -0.110661256143  0.186593185838 1746098993.17
 0.401532858546 -0.138469820677   0.16222866759 1746098993.19
 0.227587963706 -0.146885794688  0.125171277814 1746098993.21
0.0516862339442 -0.136203172912 0.0764043306245 1746098993.24
-0.118220319964 -0.108643388225 0.0180032857679 1746098993.26
 -0.275292827793 -0.0679305451855 -0.0470402168351 1746098993.27
 -0.414815388401 -0.0187665026173  -0.115128341625 1746098993.29
-0.534823266702 0.0337111727983 -0.182452443511 1746098993.31
 -0.63622574378 0.0844252978689 -0.245411985355 1746098993.34
-0.722407811313  0.128775685683 -0.300995453747 1746098993.36
-0.798404900647  0.162971045472 -0.347073200709 1746098993.37
-0.869830702703  0.184287546326 -0.382569510343 1746098993.39
-0.941780054849  0.191264826461 -0.407499315174 1746098993.41
 -1.01791997406  0.183834772108 -0.422871040477 1746098993.45
 -1.09992993972  0.163357767146 -0.430470963751 1746098993.46
-1.18737490676 0.132528045571 -0.43255740051 1746098993.48
 -1.27801002832 0.0951140557512 -0.431505155549 1746098993.49
 -1.36843891003 0.0555240007784 -0.429450106798 1746098993.51
 -1.45498679631 0.0182258670552 -0.427987315956 1746098993.54
  -1.53461362544 -0.0129051168557  -0.427971055647 1746098993.56
  -1.60568509487 -0.0352030443646  -0.429450851523 1746098993.58
  -1.66844454627 -0.0476675623349  -0.431755274233 1746098993.59
  -1.72508067467 -0.0511477766827  -0.433707659388 1746098993.61
  -1.77935783068 -0.0481846102358  -0.433929859529 1746098993.64
  -1.83585791086 -0.0425096707766  -0.431168079614 1746098993.66
  -1.89896488237 -0.0382765110921  -0.424565990111 1746098993.68
  -1.97178956328 -0.0391692666931    -0.4138197492 1746098993.69
  -2.05526363662 -0.0475744612037  -0.399177554858 1746098993.71
  -2.14761148296 -0.0640003349419  -0.381287224091 1746098993.74
   -2.2443336104 -0.0868811335457   -0.36093867323 1746098993.76
 -2.33872218611 -0.112820849905 -0.338781727717 1746098993.78
 -2.42280707807 -0.137231863701 -0.315112524028 1746098993.79
 -2.48853328255 -0.155233519632  -0.28980768948 1746098993.81
 -2.52892565191  -0.16261685539 -0.262445630419 1746098993.84
 -2.53901946017 -0.156669732254 -0.232597998415 1746098993.86
  -2.5164199621 -0.136694868078 -0.200217470215 1746098993.88
 -2.46147096998 -0.104131008901 -0.166007844741 1746098993.9
  -2.37711624089 -0.0622820573397  -0.131652703491 1746098993.91
  -2.26858843229 -0.0157432554415 -0.0998047878823 1746098993.94
  -2.14304540119  0.0303340755603 -0.0737950003126 1746098993.96
  -2.00921039341  0.0709860707395 -0.0570934219169 1746098993.98
  -1.87699485023   0.102059792767 -0.0526247733504 1746098994
  -1.75701982197   0.120637181277 -0.0620866452342 1746098994.01
   -1.6599210646   0.125237924887 -0.0854264275089 1746098994.04
  -1.5953319828  0.115832190768 -0.120600130986 1746098994.06
 -1.57049400826 0.0937286777359 -0.163674093906 1746098994.08
 -1.58854885124 0.0614108897262 -0.209257782472 1746098994.1
 -1.64671200821 0.0223718880612  -0.25119173953 1746098994.11
  -1.73468219701 -0.0190486950555  -0.283372632833 1746098994.14
  -1.83375801215 -0.0578753050065  -0.300582577337 1746098994.16
  -1.91715477818 -0.0888413838565  -0.299200225841 1746098994.18
 -1.95189718517 -0.106950475025 -0.277698890954 1746098994.19
 -1.90239575706 -0.108275821917 -0.236872150175 1746098994.22
 -1.73543439082 -0.090913710236 -0.179761557767 1746098994.23
  -1.42588707173 -0.0558834169377  -0.111290976971 1746098994.26
  -0.962158252603 -0.00767856068175  -0.0376402318155 1746098994.28
-0.350211640599 0.0458295386716 0.0345778758989 1746098994.29
 0.384817614438 0.0943286439133 0.0992374666444 1746098994.31
 1.20004303673 0.126827023236 0.151583506222 1746098994.34
 2.03931882758 0.133968116633 0.188929939888 1746098994.37
 2.84020719852 0.110402257058  0.21103550505 1746098994.38
  3.54227826253 0.0566060979459  0.220069557238 1746098994.4
   4.09527877204 -0.0204075686434   0.220156591588 1746098994.41
  4.46569579788 -0.107823578722   0.21657275324 1746098994.44
  4.64055290356 -0.189188575252  0.214738368814 1746098994.46
  4.62783912908 -0.247612366564  0.219190928847 1746098994.48
  4.45364926451 -0.269309864627  0.232726384862 1746098994.5
  4.15674348686 -0.246655287922  0.255865356487 1746098994.51
   3.7816730028 -0.180008325873  0.286742659685 1746098994.54
   3.37178720964 -0.0778617522394   0.321443948937 1746098994.57
  2.96333631381 0.0447292626647  0.354734029851 1746098994.58
 2.58156959626 0.169061563479 0.381049993178 1746098994.6
 2.23928686772 0.276364050777 0.395580700582 1746098994.61
 1.93781389832 0.351247063215 0.395231908628 1746098994.64
 1.66992377176 0.384307037342 0.379288649016 1746098994.67
 1.42389525167 0.373413892834 0.349632810344 1746098994.68
 1.18775256948 0.323532614777  0.31044758849 1746098994.7
0.952797168135 0.245251254562 0.267430029282 1746098994.71
0.715794660252 0.152432906512 0.226623992182 1746098994.74
 0.479543964925 0.0595348378371  0.193064234763 1746098994.77
  0.251931996628 -0.0208669419786   0.169475767953 1746098994.78
 0.0438781042598 -0.0799239805199   0.155291739387 1746098994.8
-0.133257430077 -0.113489704986  0.146230961647 1746098994.81
-0.270201583508 -0.122174452476  0.134608867811 1746098994.84
-0.361733820634 -0.110600184685  0.110444526459 1746098994.87
 -0.407769695195 -0.0860855318918   0.063281699307 1746098994.88
 -0.413455058897 -0.0570438790577 -0.0155145973669 1746098994.9
 -0.388356392685 -0.0313788443252  -0.130361491459 1746098994.91
 -0.344974124349 -0.0151267623198  -0.279419286276 1746098994.93
 -0.296879482799 -0.0115368513908  -0.453366090802 1746098994.97
 -0.256784744423 -0.0207049645459   -0.63534305097 1746098994.98
-0.234818751014 -0.039792314237 -0.802240175607 1746098995
 -0.237216251613 -0.0637727817547  -0.927250095387 1746098995.01
 -0.265559144082 -0.0865699542234  -0.983367990903 1746098995.03
-0.316640215696 -0.102378858158 -0.947314573372 1746098995.06
-0.382958075001  -0.10692939768 -0.803250789161 1746098995.08
 -0.453793635423 -0.0984486138879  -0.545662607086 1746098995.1
-0.516760561657 -0.078121473014 -0.180919621318 1746098995.11
 -0.559663379728 -0.0499319090478   0.272775489373 1746098995.13
 -0.572441463862 -0.0198769720976   0.787072640117 1746098995.16
 -0.548935391294 0.00532879175379    1.32656839467 1746098995.18
-0.488199039497 0.0198242393458   1.85287330461 1746098995.2
 -0.39510962643 0.0201259468505    2.3290804946 1746098995.21
 -0.280104423768 0.00625084671247    2.72401159889 1746098995.23
 -0.157992471755 -0.0178765141965    3.01565248942 1746098995.26
-0.0459381102432 -0.0449208797084    3.19331025122 1746098995.28
0.0391311694772 -0.065529504326   3.25821010975 1746098995.3
 0.0833047744152 -0.0703832958654    3.22248146075 1746098995.31
 0.0781854044169 -0.0524629331264    3.10672060064 1746098995.33
 0.0226265537661 -0.0089749166233    2.93652466751 1746098995.36
-0.0766708559131  0.0575873875908    2.73853283895 1746098995.39
-0.205898414531  0.139589226508   2.53656700412 1746098995.4
-0.346162087914  0.225649054433   2.34842998363 1746098995.41
-0.47646775617 0.302990180473  2.18380149774 1746098995.43
-0.577137537016  0.360185403348   2.04348730335 1746098995.45
-0.633015889025  0.389606174884   1.92005501274 1746098995.49
-0.635857766523  0.388953349149   1.79967349503 1746098995.5
-0.585463926181  0.361486376016   1.66480579311 1746098995.51
-0.489399064179  0.314913038669   1.49731661368 1746098995.53
-0.361426373275  0.259253165165   1.28154545785 1746098995.55
-0.219041217165  0.204249170046    1.0069431452 1746098995.59
-0.0806298624293   0.156996289588   0.669945474295 1746098995.6
0.0372056942728  0.120385790646  0.274847632576 1746098995.61
 0.121715139765 0.0927237676586 -0.166452191726 1746098995.63
